-1.131501 6.368940 25.682379
-1.074519 6.368940 25.682379
-1.016453 6.362157 25.655027
-0.959531 6.362157 25.655027
-0.902610 6.362157 25.655027
-0.844789 6.355389 25.627735
-0.787928 6.355389 25.627735
-0.729515 6.341896 25.573324
-0.671350 6.328459 25.519144
-0.614730 6.328459 25.519144
-0.502555 6.341896 25.573324
-0.443930 6.315080 25.465191
-0.386205 6.295116 25.384691
-0.048072 6.268694 25.278145
0.008004 6.262123 25.251646
0.063830 6.242493 25.172487
0.119806 6.249022 25.198820
0.175348 6.235977 25.146212
0.229702 6.197164 24.989700
0.285444 6.203598 25.015650
0.340593 6.197164 24.989700
0.394809 6.177938 24.912172
0.449153 6.165186 24.860754
0.502756 6.146158 24.784023
0.558895 6.158831 24.835125
0.614631 6.165186 24.860754
0.669099 6.158831 24.835125
0.724949 6.165186 24.860754
0.781722 6.177938 24.912172
0.835267 6.165186 24.860754
0.890426 6.165186 24.860754
0.946562 6.171556 24.886436
1.001778 6.171556 24.886436
1.054815 6.158831 24.835125
1.107634 6.146158 24.784023
1.737119 6.040511 24.358009
1.785746 6.022243 24.284346
1.834079 6.004086 24.211126
1.893506 6.022243 24.284346
1.931807 5.974066 24.090071
1.979318 5.956197 24.018017
2.036669 5.968098 24.066006
2.087979 5.962142 24.041986
2.137056 5.950264 23.994095
2.190292 5.950264 23.994095
2.248006 5.962142 24.041986
2.303648 5.968098 24.066006
2.357044 5.968098 24.066006
2.410439 5.968098 24.066006
2.461376 5.962142 24.041986
2.514719 5.962142 24.041986
2.565501 5.956197 24.018017
2.618790 5.956197 24.018017
2.674746 5.962142 24.041986
2.722654 5.950264 23.994095
2.773129 5.944344 23.970221
2.829127 5.950264 23.994095
2.885237 5.956197 24.018017
2.912393 5.903227 23.804419
2.968141 5.909066 23.827963
3.026997 5.920779 23.875195
3.073877 5.909066 23.827963
3.114422 5.885779 23.734060
3.154649 5.862675 23.640894
3.203958 5.856927 23.617718
3.272400 5.885779 23.734060
3.325059 5.885779 23.734060
3.977784 5.689586 22.942924
4.036376 5.700444 22.986710
4.083481 5.695010 22.964796
4.134433 5.695010 22.964796
4.177422 5.684173 22.921095
4.435920 5.689586 22.942924
4.482555 5.684173 22.921095
4.516222 5.662621 22.834190
4.541059 5.630599 22.705063
4.569899 5.604189 22.598566
4.585626 5.562445 22.430233
4.665802 5.598937 22.577387
4.698282 5.578026 22.493063
4.717356 5.541805 22.347004
4.749315 5.521317 22.264391
4.798713 5.521317 22.264391
4.839167 5.511131 22.223312
4.874983 5.495921 22.161980
4.897123 5.465751 22.040321
4.973325 5.495921 22.161980
4.999500 5.470756 22.060505
5.039217 5.460755 22.020174
5.064925 5.435910 21.919992
5.072023 5.391756 21.741941
5.106436 5.377197 21.683233
5.283500 5.460755 22.020174
5.337235 5.465751 22.040321
5.381213 5.460755 22.020174
5.440015 5.470756 22.060505
5.488961 5.470756 22.060505
5.548069 5.480794 22.100983
5.586854 5.470756 22.060505
5.625496 5.460755 22.020174
5.648537 5.435910 21.919992
5.676511 5.416197 21.840500
5.704282 5.396626 21.761581
5.768525 5.235816 21.113121
5.830699 5.249618 21.168779
5.867355 5.240408 21.131641
5.893561 5.222085 21.057755
5.929916 5.212972 21.021004
5.976555 5.212972 21.021004
6.023195 5.212972 21.021004
6.053987 5.199361 20.966120
6.053092 5.158951 20.803171
9.764695 4.957731 19.991760
9.792798 4.949516 19.958633
9.820807 4.941328 19.925617
9.881364 4.949516 19.958633
9.942121 4.957731 19.991760
9.986477 4.957731 19.991760
10.039164 4.961848 20.008366
10.075189 4.957731 19.991760
10.102777 4.949516 19.958633
10.080248 4.916926 19.827219
10.049796 4.880773 19.681431
9.987389 4.829479 19.474592
9.990216 4.810037 19.396193
9.969038 4.779253 19.272057
9.900908 4.726318 19.058601
41.236835 17.994173 72.560455
41.027100 17.833031 71.910660
43.079861 18.438475 74.352074
42.848087 18.269314 73.669945
-15.121479 7.386660 29.522146
-15.130145 7.423048 29.667576
-15.120184 7.450574 29.777592
-15.091424 7.469039 29.851389
-15.043834 7.478306 29.888426
-14.996125 7.487596 29.925554
-14.948298 7.496909 29.962774
-14.900352 7.506245 30.000088
-14.889417 7.534393 30.112589
-14.841157 7.543823 30.150276
-14.811337 7.562754 30.225937
-14.781366 7.581779 30.301977
-14.732666 7.591329 30.340139
-14.702383 7.610498 30.416756
-14.634897 7.610498 30.416756
-14.604290 7.629766 30.493761
-14.536633 7.629766 30.493761
-14.487314 7.639436 30.532410
-14.437870 7.649130 30.571156
-14.370041 7.649130 30.571156
-14.356871 7.678363 30.687988
-14.325279 7.697976 30.766375
-14.311852 7.727583 30.884706
-14.243328 7.727583 30.884706
-14.247869 7.767416 31.043905
-14.234019 7.797561 31.164387
-14.238554 7.838120 31.326490
-14.243135 7.879104 31.490290
-14.285309 7.941390 31.739223
-14.214889 7.941390 31.739223
-14.144468 7.941390 31.739223
-14.167377 7.994051 31.949696
-14.115210 8.004667 31.992126
-14.195039 8.090624 32.335667
-14.262133 8.211873 32.820259
-14.189314 8.211873 32.820259
-14.174428 8.245574 32.954952
-14.101310 8.245574 32.954952
-14.028193 8.245574 32.954952
-13.974191 8.256869 33.000099
-13.939162 8.279553 33.090755
-13.942349 8.325296 33.273579
-13.926229 8.359938 33.412025
-13.909976 8.394867 33.551632
-13.874181 8.418317 33.645351
-13.838185 8.441897 33.739597
-13.669323 8.430091 33.692406
-13.637331 8.598452 34.365295
-13.660217 8.710281 34.812241
-13.701780 8.786465 35.116722
-13.604035 8.773675 35.065605
-13.389803 8.685180 34.711918
-13.409396 8.748207 34.963818
-13.312500 8.735529 34.913147
-13.235037 8.735529 34.913147
-13.157575 8.735529 34.913147
-13.118135 8.760922 35.014637
-13.078466 8.786465 35.116722
-13.000552 8.786465 35.116722
-12.960423 8.812156 35.219402
-13.151464 8.996291 35.955330
-13.007086 9.118782 36.444889
-13.246155 9.403299 37.582016
-12.489411 9.036754 36.117046
-9.524464 9.036754 36.117046
-9.463514 9.132598 36.500107
-9.526876 9.273100 37.061649
-9.473798 9.301721 37.176037
-9.391315 9.301721 37.176037
-9.337651 9.330518 37.291130
-9.283654 9.359495 37.406944
-9.200659 9.359495 37.406944
-9.131843 9.374051 37.465118
-9.034667 9.359495 37.406944
-8.979558 9.388652 37.523476
-8.910183 9.403299 37.582016
-8.840590 9.417992 37.640736
-8.784528 9.447515 37.758732
-8.714411 9.462347 37.818008
-8.630503 9.462347 37.818008
-8.546596 9.462347 37.818008
-8.436200 9.432731 37.699642
-8.391954 9.477224 37.877472
-8.320998 9.492149 37.937119
-8.236826 9.492149 37.937119
-8.055796 9.477224 37.877472
-8.450062 10.045858 40.150120
-8.417093 10.113279 40.419582
-8.355453 10.147331 40.555676
-8.223935 10.096339 40.351879
-8.216989 10.198840 40.761543
-8.126550 10.198840 40.761543
-8.049732 10.216126 40.830627
-7.945673 10.198840 40.761543
-7.868548 10.216126 40.830627
-7.817708 10.268338 41.039303
-7.713512 10.250875 40.969509
-7.609671 10.233472 40.899952
-7.622456 10.374380 41.463116
-6.280895 9.721798 38.854954
-6.214734 9.753260 38.980698
-6.118346 9.737504 38.917725
-6.093308 9.979329 39.884224
-5.926322 9.848881 39.362862
-1.530375 6.425922 25.682379
-1.474966 6.432780 25.709787
-1.413397 6.412250 25.627735
-1.355095 6.405436 25.600500
-1.296916 6.398636 25.573324
-1.241494 6.405436 25.600500
-1.185954 6.412250 25.627735
-1.129093 6.412250 25.627735
-1.073374 6.419078 25.655027
-1.016453 6.419078 25.655027
-0.958511 6.412250 25.627735
-0.901650 6.412250 25.627735
-0.844789 6.412250 25.627735
-0.787928 6.412250 25.627735
-0.729515 6.398636 25.573324
-0.670639 6.378323 25.492138
-0.613430 6.371580 25.465191
-0.443930 6.371580 25.465191
-0.386612 6.358138 25.411467
-0.048174 6.338081 25.331305
0.008013 6.324780 25.278145
0.063964 6.311534 25.225206
0.120057 6.318150 25.251646
0.175532 6.298344 25.172487
0.230659 6.278661 25.093824
0.286634 6.285208 25.119991
0.341301 6.265608 25.041655
0.395218 6.239663 24.937962
0.449617 6.226771 24.886436
0.502756 6.201147 24.784023
0.558319 6.207533 24.809547
0.613997 6.213933 24.835125
0.667723 6.201147 24.784023
0.723456 6.207533 24.809547
0.780108 6.220345 24.860754
0.833547 6.207533 24.809547
0.887678 6.201147 24.784023
0.943638 6.207533 24.809547
0.999713 6.213933 24.835125
1.048331 6.175732 24.682449
1.103094 6.175732 24.682449
1.160235 6.188414 24.733133
1.737119 6.094555 24.358009
1.783947 6.070005 24.259890
1.885901 6.051722 24.186819
1.929877 6.021493 24.066006
1.975379 5.997527 23.970221
2.028563 5.997527 23.970221
2.083819 6.003501 23.994095
2.130689 5.985615 23.922613
2.188112 5.997527 23.970221
2.245765 6.009486 24.018017
2.303648 6.021493 24.066006
2.354691 6.015484 24.041986
2.410439 6.021493 24.066006
2.461376 6.015484 24.041986
2.514719 6.015484 24.041986
2.565501 6.009486 24.018017
2.621404 6.015484 24.041986
2.674746 6.015484 24.041986
2.725369 6.009486 24.018017
2.775891 6.003501 23.994095
2.826312 5.997527 23.970221
2.882363 6.003501 23.994095
2.906649 5.944294 23.757467
2.962281 5.950162 23.780920
3.018024 5.956042 23.804419
3.067808 5.950162 23.780920
3.114422 5.938438 23.734060
3.157748 5.920938 23.664118
3.203958 5.909328 23.617718
3.278861 5.950162 23.780920
3.334916 5.956042 23.804419
4.040231 5.756938 23.008663
4.083481 5.745963 22.964796
4.134433 5.745963 22.964796
4.173450 5.729577 22.899307
4.641811 5.680975 22.705063
4.705492 5.697084 22.769444
4.738098 5.675626 22.683683
4.774939 5.659638 22.619785
4.820599 5.654329 22.598566
4.852530 5.633192 22.514086
5.041986 5.459705 21.820717
5.062884 5.430193 21.702766
5.111036 5.430193 21.702766
5.210828 5.484545 21.919992
5.278675 5.504580 22.000065
5.327487 5.504580 22.000065
5.361609 5.489540 21.939955
5.415220 5.494544 21.959955
5.463943 5.494544 21.959955
5.517696 5.499557 21.979992
5.586854 5.519702 22.060505
5.620359 5.504580 22.000065
5.648537 5.484545 21.919992
5.686822 5.474582 21.880173
5.730164 5.469614 21.860319
5.819529 5.329368 21.299797
5.877180 5.338809 21.337530
5.898399 5.315269 21.243448
5.903883 5.278034 21.094633
5.940283 5.268806 21.057755
5.976555 5.259612 21.021004
6.028456 5.264205 21.039364
6.059260 5.250448 20.984383
6.058323 5.209607 20.821150
7.726965 5.151722 20.589804
7.732992 5.125438 20.484755
9.528827 4.948699 19.778383
9.620099 4.973197 19.876297
9.696199 4.989665 19.942112
9.748515 4.993798 19.958633
9.784692 4.989665 19.942112
9.820807 4.985538 19.925617
9.865017 4.985538 19.925617
9.909226 4.985538 19.925617
9.961676 4.989665 19.942112
10.022515 4.997939 19.975183
10.075189 5.002087 19.991760
10.111154 4.997939 19.975183
10.113544 4.977304 19.892710
10.082747 4.940586 19.745960
10.030597 4.872688 19.474592
10.009074 4.841377 19.349455
41.831841 18.489309 73.895927
41.612854 18.320713 73.222099
41.648724 18.265196 73.000214
42.194275 18.432766 73.669945
42.815567 18.489309 73.895927
42.587612 18.320713 73.222099
-15.115555 7.291324 28.884977
-15.102971 7.443040 29.486012
-15.111535 7.479661 29.631084
-15.120184 7.516643 29.777592
-15.091424 7.535271 29.851389
-15.043834 7.544621 29.888426
-14.996125 7.553992 29.925554
-14.948298 7.563388 29.962774
-14.918931 7.582249 30.037495
-14.889417 7.601205 30.112589
-14.841157 7.610718 30.150276
-14.792776 7.620255 30.188059
-14.744273 7.629817 30.225937
-14.714134 7.649011 30.301977
-14.665350 7.658645 30.340139
-14.579671 7.649011 30.301977
-14.549041 7.668303 30.378401
-14.499924 7.677985 30.416756
-14.432438 7.677985 30.416756
-14.383112 7.687692 30.455210
-14.333661 7.697423 30.493761
-14.302212 7.716959 30.571156
-14.252470 7.726765 30.610001
-14.238832 7.756331 30.727131
-14.170658 7.756331 30.727131
-14.192999 7.806116 30.924353
-14.178991 7.836294 31.043905
-14.164874 7.866706 31.164387
-14.187498 7.917922 31.367281
-14.247766 7.990754 31.655809
-14.196185 8.001268 31.697462
-14.088781 7.980268 31.614267
-14.129897 8.043603 31.865173
-14.152801 8.097156 32.077324
-14.252431 8.195369 32.466404
-14.295998 8.262179 32.731075
-14.262133 8.284692 32.820259
-14.189314 8.284692 32.820259
-14.135753 8.295995 32.865036
-14.082047 8.307328 32.909935
-14.009028 8.307328 32.909935
-13.974191 8.330088 33.000099
-13.900972 8.330088 33.000099
-13.865743 8.352972 33.090755
-13.868525 8.399121 33.273579
-13.890630 8.457530 33.504967
-13.893585 8.504845 33.692406
-13.857594 8.528701 33.786915
-13.782630 8.528701 33.786915
-13.669323 8.504845 33.692406
-13.651849 8.540680 33.834370
-13.653485 8.588932 34.025524
-13.577991 8.588932 34.025524
-13.521597 8.601081 34.073650
-13.408068 8.576818 33.977535
-13.523420 8.699519 34.463623
-13.446955 8.699519 34.463623
-13.447442 8.749588 34.661972
-13.351326 8.737018 34.612171
-13.331997 8.774839 34.762009
-13.254869 8.774839 34.762009
-13.196785 8.787520 34.812241
-13.119547 8.787520 34.812241
-13.099096 8.825782 34.963818
-13.059429 8.851476 35.065605
-13.000552 8.864379 35.116722
-12.960423 8.890298 35.219402
-13.131864 9.062539 35.901745
-13.150197 9.130576 36.171280
-13.030811 9.103239 36.062981
-12.931439 9.089632 36.009075
-12.851545 9.089632 36.009075
-12.607348 9.144307 36.225670
-12.268685 8.955764 35.478748
-12.048018 8.851476 35.065605
-11.849111 8.877319 35.167988
-9.868432 9.213582 36.500107
-9.743161 9.171891 36.334949
-9.647992 9.158078 36.280228
-9.538765 9.130576 36.171280
-9.463514 9.213582 36.500107
-9.468609 9.298110 36.834972
-9.430140 9.340959 37.004719
-9.376843 9.369744 37.118755
-9.323218 9.398707 37.233494
-9.254912 9.413257 37.291130
-9.186394 9.427851 37.348949
-9.131843 9.457175 37.465118
-9.020660 9.427851 37.348949
-8.979558 9.471907 37.523476
-8.910183 9.486683 37.582016
-8.826798 9.486683 37.582016
-8.770781 9.516376 37.699642
-8.714411 9.546254 37.818008
-8.616976 9.531291 37.758732
-8.546596 9.546254 37.818008
-8.436200 9.516376 37.699642
-8.378780 9.546254 37.818008
-8.294872 9.546254 37.818008
-8.210965 9.546254 37.818008
-8.055796 9.561264 37.877472
-8.450062 10.134940 40.150120
-8.417093 10.202960 40.419582
-8.355453 10.237313 40.555676
-8.223935 10.185869 40.351879
-8.216989 10.289279 40.761543
-8.126550 10.289279 40.761543
-8.049732 10.306719 40.830627
-7.945673 10.289279 40.761543
-7.881907 10.324217 40.899952
-7.804412 10.341776 40.969509
-7.700416 10.324217 40.899952
-7.596773 10.306719 40.830627
-7.596306 10.430470 41.320877
-7.415589 10.306719 40.830627
-6.408448 9.871695 39.107258
-6.291042 9.823852 38.917725
-6.224806 9.855695 39.043877
-6.128247 9.839747 38.980698
-6.123724 10.118076 40.083313
-5.965311 10.001585 39.621826
-5.827832 10.067822 39.884224
-5.701581 10.001585 39.621826
-1.532009 6.489823 25.709787
-1.474966 6.489823 25.709787
-1.413397 6.469110 25.627735
-1.355095 6.462236 25.600500
-1.296916 6.455376 25.573324
-1.241494 6.462236 25.600500
-1.185954 6.469110 25.627735
-1.129093 6.469110 25.627735
-1.072232 6.469110 25.627735
-1.016453 6.476000 25.655027
-0.959531 6.476000 25.655027
-0.902610 6.476000 25.655027
-0.845689 6.476000 25.655027
-0.788767 6.476000 25.655027
-0.730290 6.462236 25.600500
-0.670639 6.434883 25.492138
-0.613430 6.428080 25.465191
-0.386205 6.407760 25.384691
-0.048224 6.401015 25.357969
0.008021 6.387567 25.304697
0.064098 6.380865 25.278145
0.120183 6.380865 25.278145
0.176084 6.374176 25.251646
0.231624 6.360841 25.198820
0.287835 6.367502 25.225206
0.342368 6.340942 25.119991
0.395627 6.301517 24.963804
0.449617 6.281988 24.886436
0.502756 6.256136 24.784023
0.557745 6.256136 24.784023
0.613365 6.262579 24.809547
0.666352 6.243289 24.733133
0.721969 6.249706 24.758553
0.778501 6.262579 24.809547
0.830980 6.243289 24.733133
0.884947 6.236886 24.707766
0.941698 6.249706 24.758553
0.997656 6.256136 24.784023
1.048331 6.230496 24.682449
1.104226 6.236886 24.707766
1.160235 6.243289 24.733133
1.782152 6.117670 24.235483
1.975379 6.050710 23.970221
2.026546 6.044696 23.946392
2.081746 6.050710 23.970221
2.126466 6.026723 23.875195
2.188112 6.050710 23.970221
2.248006 6.068826 24.041986
2.303648 6.074889 24.066006
2.357044 6.074889 24.066006
2.410439 6.074889 24.066006
2.461376 6.068826 24.041986
2.514719 6.068826 24.041986
2.568061 6.068826 24.041986
2.624022 6.074889 24.066006
2.674746 6.068826 24.041986
2.725369 6.062776 24.018017
2.770372 6.044696 23.946392
2.820698 6.038693 23.922613
2.870925 6.032702 23.898880
2.898074 5.979316 23.687386
2.953534 5.985201 23.710699
3.006142 5.985201 23.710699
3.055742 5.979316 23.687386
3.105244 5.973442 23.664118
3.151556 5.961730 23.617718
3.197688 5.950063 23.571499
4.044094 5.813541 23.030661
4.087378 5.802446 22.986710
4.130496 5.791394 22.942924
4.169487 5.774895 22.877560
4.681522 5.780384 22.899307
4.732330 5.780384 22.899307
4.787688 5.785884 22.921095
4.824772 5.769415 22.855856
4.870861 5.763947 22.834190
4.907569 5.747603 22.769444
4.953406 5.742176 22.747942
5.002634 5.518116 21.860319
5.023784 5.488235 21.741941
5.067449 5.483286 21.722336
5.143473 5.513113 21.840500
5.288334 5.563553 22.040321
5.332356 5.558468 22.020174
5.376299 5.553392 22.000065
5.425111 5.553392 22.000065
5.468928 5.548325 21.979992
5.522735 5.553392 22.000065
5.602244 5.583989 22.121277
5.630643 5.563553 22.040321
5.653682 5.538218 21.939955
5.691992 5.528149 21.900064
5.735369 5.523128 21.880173
5.903038 5.453779 21.605446
5.935005 5.439145 21.547470
5.935036 5.395709 21.375397
5.929845 5.348253 21.187397
5.945480 5.320179 21.076178
5.987004 5.315528 21.057755
6.028456 5.310885 21.039364
6.048723 5.287795 20.947887
6.053092 5.251264 20.803171
7.720367 5.192966 20.572222
7.739573 5.175289 20.502188
7.771833 5.166494 20.467350
7.817245 5.166494 20.467350
7.921528 5.175289 20.502188
7.973803 5.179697 20.519651
7.998890 5.166494 20.467350
8.051142 5.170888 20.484755
8.032753 5.101480 20.209791
9.544498 5.000793 19.810913
9.628043 5.021440 19.892710
9.696199 5.033911 19.942112
9.732388 5.029747 19.925617
9.768518 5.025590 19.909149
9.812692 5.025590 19.909149
9.856864 5.025590 19.909149
9.901037 5.025590 19.909149
9.945210 5.025590 19.909149
10.005921 5.033911 19.942112
10.075189 5.046443 19.991760
10.178675 5.075930 20.108574
10.163901 5.046443 19.991760
43.260288 19.366127 76.719971
42.220371 18.826513 74.582260
41.867367 18.596220 73.669945
41.902679 18.539524 73.445335
42.323704 18.653263 73.895927
42.330284 18.371492 72.779671
-15.097452 7.346602 28.850384
-15.084507 7.499282 29.449965
-15.111535 7.545403 29.631084
-15.120184 7.582711 29.777592
-15.072747 7.592095 29.814444
-15.025192 7.601503 29.851389
-14.977520 7.610934 29.888426
-14.929729 7.620389 29.925554
-14.900352 7.639369 30.000088
-14.852286 7.648894 30.037495
-14.785642 7.648894 30.037495
-14.718996 7.648894 30.037495
-14.652351 7.648894 30.037495
-14.640471 7.677613 30.150276
-14.591839 7.687234 30.188059
-14.524860 7.687234 30.188059
-14.512439 7.716243 30.301977
-14.463401 7.725961 30.340139
-14.414238 7.735704 30.378401
-14.383112 7.755263 30.455210
-14.333661 7.765080 30.493761
-14.302212 7.784788 30.571156
-14.252470 7.794680 30.610001
-14.202601 7.804597 30.648945
-14.170658 7.824507 30.727131
-14.229532 7.894998 31.003952
-14.197287 7.915372 31.083963
-14.220062 7.966770 31.285807
-14.261779 8.029337 31.531507
-14.247766 8.060989 31.655809
-14.196185 8.071596 31.697462
-14.107295 8.060989 31.655809
-14.252431 8.267404 32.466404
-14.276601 8.323491 32.686665
-14.223377 8.334801 32.731075
-14.131556 8.323491 32.686665
-14.116494 8.357512 32.820259
-14.082047 8.380346 32.909935
-14.009028 8.380346 32.909935
-13.936010 8.380346 32.909935
-13.881956 8.391810 32.954952
-13.827755 8.403306 33.000099
-13.811296 8.437983 33.136272
-13.929376 8.555667 33.598427
-13.893585 8.579598 33.692406
-13.838185 8.591615 33.739597
-13.782630 8.603665 33.786915
-13.669323 8.579598 33.692406
-13.632702 8.603665 33.786915
-13.634228 8.652205 33.977535
-13.501711 8.615748 33.834370
-13.445526 8.627867 33.881958
-13.332847 8.603665 33.786915
-13.446473 8.726050 34.267525
-13.427745 8.763448 34.414387
-13.428122 8.813812 34.612171
-13.332170 8.801167 34.562511
-13.312787 8.839212 34.711918
-13.254869 8.851967 34.762009
-13.196785 8.864758 34.812241
-13.100616 8.851967 34.762009
-13.099096 8.903358 34.963818
-13.059429 8.929276 35.065605
-12.981628 8.929276 35.065605
-12.922638 8.942293 35.116722
-12.996284 9.047807 35.531078
-13.110826 9.183253 36.062981
-12.895677 9.088019 35.688995
-12.778630 9.061172 35.583561
-12.643652 9.021195 35.426575
-12.090621 8.903358 34.963818
-11.926497 8.839212 34.711918
-11.764720 8.775985 34.463623
-11.695448 8.839212 34.711918
-9.853502 9.280504 36.444889
-9.743161 9.252508 36.334949
-9.662544 9.252508 36.334949
-9.538765 9.210831 36.171280
-9.487000 9.238574 36.280228
-9.449197 9.280504 36.444889
-9.411049 9.322816 36.611050
-9.386882 9.379837 36.834972
-9.333699 9.408609 36.947964
-9.308831 9.466687 37.176037
-9.254912 9.495996 37.291130
-9.172174 9.495996 37.291130
-9.117662 9.525486 37.406944
-9.020660 9.510718 37.348949
-8.979558 9.555161 37.523476
-8.896304 9.555161 37.523476
-8.826798 9.570067 37.582016
-8.757076 9.585020 37.640736
-8.687136 9.600020 37.699642
-8.603491 9.600020 37.699642
-8.533199 9.615067 37.758732
-8.436200 9.600020 37.699642
-8.365647 9.615067 37.758732
-8.294872 9.630162 37.818008
-8.223875 9.645304 37.877472
-8.363385 9.910199 38.917725
-8.408022 10.173156 39.950367
-8.402994 10.275399 40.351879
-8.355453 10.327295 40.555676
-8.210183 10.258216 40.284401
-8.203109 10.362185 40.692688
-8.126550 10.379718 40.761543
-8.036112 10.379718 40.761543
-7.945673 10.379718 40.761543
-7.881907 10.414963 40.899952
-7.791162 10.414963 40.899952
-7.687365 10.397310 40.830627
-7.583919 10.379718 40.761543
-7.570336 10.486176 41.179607
-7.365653 10.327295 40.555676
-7.202914 10.224022 40.150120
-7.090198 10.190055 40.016731
-6.833170 10.072928 39.556767
-6.429322 9.990901 39.234642
-6.224806 9.942323 39.043877
-6.144170 10.241091 40.217148
-5.847193 10.190055 40.016731
-1.538577 6.574934 25.820011
-1.476541 6.553860 25.737255
-1.413397 6.525971 25.627735
-1.355095 6.519036 25.600500
-1.296916 6.512116 25.573324
-1.241494 6.519036 25.600500
-1.185954 6.525971 25.627735
-1.127893 6.519036 25.600500
-1.072232 6.525971 25.627735
-1.016453 6.532921 25.655027
-0.959531 6.532921 25.655027
-0.902610 6.532921 25.655027
-0.845689 6.532921 25.655027
-0.788767 6.532921 25.655027
-0.730290 6.519036 25.600500
-0.670639 6.491443 25.492138
-0.616690 6.519036 25.600500
-0.104707 6.470900 25.411467
-0.048275 6.464081 25.384691
0.008021 6.443711 25.304697
0.064098 6.436950 25.278145
0.120183 6.436950 25.278145
0.176084 6.430202 25.251646
0.231867 6.423469 25.225206
0.287835 6.423469 25.225206
0.342726 6.403354 25.146212
0.396038 6.363499 24.989700
0.450082 6.343757 24.912172
0.502756 6.311125 24.784023
0.557745 6.311125 24.784023
0.613365 6.317624 24.809547
0.666352 6.298165 24.733133
0.721228 6.298165 24.733133
0.776901 6.304638 24.758553
0.830127 6.291706 24.707766
0.884040 6.285259 24.682449
0.940731 6.298165 24.733133
0.996631 6.304638 24.758553
1.050483 6.298165 24.733133
1.106495 6.304638 24.758553
1.162623 6.311125 24.784023
1.216360 6.304638 24.758553
1.375502 6.278826 24.657187
1.422928 6.246857 24.531641
1.926029 6.116065 24.018017
1.971456 6.091771 23.922613
2.024534 6.091771 23.922613
2.081746 6.103894 23.970221
2.124360 6.073677 23.851555
2.190292 6.109973 23.994095
2.248006 6.122169 24.041986
2.303648 6.128285 24.066006
2.357044 6.128285 24.066006
2.408034 6.122169 24.041986
2.461376 6.122169 24.041986
2.512212 6.116065 24.018017
2.568061 6.122169 24.041986
2.624022 6.128285 24.066006
2.674746 6.122169 24.041986
2.722654 6.109973 23.994095
2.767621 6.091771 23.922613
2.812320 6.073677 23.851555
2.862406 6.067669 23.827963
2.898074 6.031871 23.687386
2.950630 6.031871 23.687386
3.003186 6.031871 23.687386
3.055742 6.031871 23.687386
3.105244 6.025946 23.664118
3.151556 6.014131 23.617718
3.200820 6.008240 23.594585
3.521198 6.109973 23.994095
3.563786 6.091771 23.922613
3.627671 6.109973 23.994095
4.047964 5.870252 23.052700
4.083481 5.847867 22.964796
4.130496 5.842298 22.942924
4.165531 5.820127 22.855856
4.216242 5.820127 22.855856
4.736833 5.836740 22.921095
4.787688 5.836740 22.921095
4.843152 5.842298 22.942924
4.903396 5.853447 22.986710
4.935559 5.831191 22.899307
4.991110 5.836740 22.921095
5.027615 5.820127 22.855856
5.059126 5.798122 22.769444
4.975544 5.536474 21.741941
5.288334 5.612455 22.040321
5.342123 5.617594 22.060505
5.386137 5.612455 22.040321
5.435038 5.612455 22.040321
5.488961 5.617594 22.060505
5.583929 5.664278 22.243834
5.638488 5.669513 22.264391
5.661723 5.643435 22.161980
5.669171 5.602204 22.000065
5.717983 5.602204 22.000065
5.847649 5.633070 22.121277
5.880530 5.617594 22.060505
5.940331 5.536474 21.741941
5.977780 5.526498 21.702766
5.977467 5.482049 21.528214
5.971864 5.433493 21.337530
5.987386 5.404769 21.224731
6.013286 5.385788 21.150194
6.044292 5.371640 21.094633
6.069835 5.352891 21.021004
6.068814 5.311180 20.857204
7.726965 5.243088 20.589804
7.746166 5.225224 20.519651
7.778442 5.216338 20.484755
7.823892 5.216338 20.484755
7.869342 5.216338 20.484755
7.921528 5.220777 20.502188
7.973803 5.225224 20.519651
8.005692 5.216338 20.484755
8.037473 5.207481 20.449976
8.053020 5.159305 20.260782
9.659950 5.082364 19.958633
9.720340 5.090799 19.991760
9.756598 5.086578 19.975183
9.784692 5.078156 19.942112
9.812692 5.069763 19.909149
9.865017 5.073956 19.925617
9.909226 5.073956 19.925617
9.945210 5.069763 19.909149
9.989383 5.069763 19.909149
43.867264 20.047102 78.725723
43.898476 19.981802 78.469284
44.072578 19.981802 78.469284
43.398502 19.598764 76.965080
42.749779 19.230135 75.517464
42.125011 18.875118 74.123299
42.159748 18.817219 73.895927
41.950073 18.366507 72.125961
-15.188401 7.455256 29.024181
-15.178868 7.482300 29.129469
-15.076127 7.527813 29.306656
-15.102971 7.573883 29.486012
-15.111535 7.611147 29.631084
-15.101517 7.639336 29.740829
-15.072747 7.658246 29.814444
-15.025192 7.667735 29.851389
-14.977520 7.677248 29.888426
-14.929729 7.686786 29.925554
-14.900352 7.705931 30.000088
-14.833790 7.705931 30.000088
-14.767228 7.705931 30.000088
-14.700666 7.705931 30.000088
-14.634105 7.705931 30.000088
-14.603916 7.725172 30.074995
-14.555360 7.734828 30.112589
-14.488548 7.734828 30.112589
-14.494207 7.773696 30.263908
-14.427060 7.773696 30.263908
-14.414238 7.803105 30.378401
-14.364951 7.812957 30.416756
-14.315540 7.822835 30.455210
-14.302212 7.852617 30.571156
-14.252470 7.862595 30.610001
-14.257017 7.902761 30.766375
-14.225090 7.922999 30.845161
-14.415054 8.067617 31.408176
-14.326689 8.057113 31.367281
-14.407168 8.141924 31.697462
-14.355730 8.152651 31.739223
-14.285309 8.152651 31.739223
-14.252444 8.174191 31.823080
-14.200597 8.185003 31.865173
-14.271665 8.350692 32.510216
-14.218722 8.361976 32.554150
-14.165636 8.373291 32.598202
-14.093310 8.373291 32.598202
-14.116494 8.430330 32.820259
-14.062835 8.441832 32.865036
-13.989916 8.441832 32.865036
-13.898037 8.430330 32.820259
-13.844079 8.441832 32.865036
-13.771161 8.441832 32.865036
-13.830319 8.523227 33.181915
-13.968339 8.654353 33.692406
-13.913044 8.666473 33.739597
-13.838185 8.666473 33.739597
-13.782630 8.678629 33.786915
-13.688468 8.666473 33.739597
-13.651849 8.690818 33.834370
-13.634228 8.727592 33.977535
-13.501711 8.690818 33.834370
-13.426641 8.690818 33.834370
-13.332847 8.678629 33.786915
-13.313902 8.715299 33.929676
-13.313628 8.764678 34.121914
-13.370490 8.852449 34.463623
-13.294024 8.852449 34.463623
-13.274531 8.890607 34.612171
-13.177742 8.929094 34.762009
-13.081738 8.916228 34.711918
-13.118135 8.993986 35.014637
-13.059429 9.007077 35.065605
-12.962760 8.993986 35.014637
-12.922638 9.020207 35.116722
-12.920059 9.073112 35.322685
-12.936530 9.140121 35.583561
-12.800856 9.099797 35.426575
-12.666373 9.059828 35.270969
-11.994116 8.852449 34.463623
-11.934725 8.865132 34.512997
-11.875163 8.877851 34.562511
-11.697780 8.802080 34.267525
-11.523399 8.727592 33.977535
-11.595201 8.839804 34.414387
-11.551850 8.865132 34.512997
-9.883407 9.389776 36.555496
-9.787449 9.375549 36.500107
-9.706465 9.375549 36.500107
-9.567496 9.319070 36.280228
-9.530058 9.361365 36.444889
-9.449197 9.361365 36.444889
-9.396768 9.389776 36.555496
-9.386882 9.461563 36.834972
-9.305156 9.461563 36.834972
-9.308831 9.549170 37.176037
-9.254912 9.578734 37.291130
-9.172174 9.578734 37.291130
-9.103527 9.593585 37.348949
-9.020660 9.593585 37.348949
-8.965593 9.623425 37.465118
-8.896304 9.638414 37.523476
-8.813050 9.638414 37.523476
-8.743415 9.653451 37.582016
-8.673562 9.668535 37.640736
-8.590048 9.668535 37.640736
-8.533199 9.698844 37.758732
-8.449424 9.698844 37.758732
-8.378780 9.714069 37.818008
-8.294872 9.714069 37.818008
-8.223875 9.729343 37.877472
-8.349895 9.980423 38.854954
-8.303867 10.028951 39.043877
-8.297933 10.127435 39.427284
-8.388943 10.347596 40.284401
-8.327414 10.382319 40.419582
-8.196477 10.330321 40.217148
-8.189275 10.434844 40.624065
-8.099142 10.434844 40.624065
-8.022537 10.452470 40.692688
-7.945673 10.470157 40.761543
-7.868548 10.487903 40.830627
-7.777956 10.487903 40.830627
-7.674357 10.470157 40.761543
-7.558341 10.434844 40.624065
-7.557417 10.559492 41.109337
-7.304170 10.330321 40.217148
-7.178984 10.278841 40.016731
-7.078440 10.261795 39.950367
-6.943739 10.194172 39.687103
-6.799675 10.110887 39.362862
-6.657944 10.028951 39.043877
-6.528989 9.964352 38.792385
-6.411944 9.916446 38.605885
-6.250650 9.932364 38.667850
-6.214734 10.012722 38.980698
-6.185476 10.399769 40.487514
-6.199844 10.577542 41.179607
-6.108478 10.577542 41.179607
-5.906058 10.382319 40.419582
-2.796922 7.555387 29.414007
-2.300762 7.428406 28.919653
-1.474966 6.603909 25.709787
-1.411895 6.575837 25.600500
-1.353657 6.568856 25.573324
-1.295541 6.561890 25.546206
-1.240176 6.568856 25.573324
-1.184694 6.575837 25.600500
-1.127893 6.575837 25.600500
-1.071093 6.575837 25.600500
-1.015372 6.582832 25.627735
-0.958511 6.582832 25.627735
-0.901650 6.582832 25.627735
-0.844789 6.582832 25.627735
-0.787928 6.582832 25.627735
-0.729515 6.568856 25.573324
-0.669930 6.541080 25.465191
-0.613430 6.541080 25.465191
-0.161088 6.527281 25.411467
-0.104818 6.534173 25.438301
-0.048275 6.520403 25.384691
0.008030 6.506690 25.331305
0.064098 6.493035 25.278145
0.120183 6.493035 25.278145
0.175899 6.479437 25.225206
0.231624 6.472659 25.198820
0.287534 6.472659 25.198820
0.342012 6.445690 25.093824
0.395627 6.412292 24.963804
0.450082 6.399030 24.912172
0.503274 6.372670 24.809547
0.558319 6.372670 24.809547
0.613365 6.372670 24.809547
0.666352 6.353042 24.733133
0.721228 6.353042 24.733133
0.776104 6.353042 24.733133
0.830127 6.346526 24.707766
0.884040 6.340023 24.682449
0.940731 6.353042 24.733133
0.996631 6.359571 24.758553
1.051563 6.359571 24.758553
1.108774 6.372670 24.809547
1.165020 6.379240 24.835125
1.221381 6.385823 24.860754
1.269987 6.353042 24.733133
1.327589 6.366114 24.784023
1.378324 6.346526 24.707766
1.425832 6.314145 24.581705
1.924111 6.163209 23.994095
1.969500 6.138752 23.898880
2.020521 6.132668 23.875195
2.079677 6.150957 23.946392
2.122259 6.120536 23.827963
2.192476 6.169354 24.018017
2.248006 6.175511 24.041986
2.303648 6.181681 24.066006
2.357044 6.181681 24.066006
2.408034 6.175511 24.041986
2.458922 6.169354 24.018017
2.512212 6.169354 24.018017
2.565501 6.169354 24.018017
2.621404 6.175511 24.041986
2.669418 6.163209 23.994095
2.717242 6.150957 23.946392
2.762135 6.132668 23.875195
2.809538 6.120536 23.827963
2.859578 6.114489 23.804419
2.900927 6.090415 23.710699
2.953534 6.090415 23.710699
3.006142 6.090415 23.710699
3.055742 6.084427 23.687386
3.105244 6.078450 23.664118
3.154649 6.072485 23.640894
3.207102 6.072485 23.640894
3.325059 6.096416 23.734060
3.384387 6.108452 23.780920
3.443950 6.120536 23.827963
3.521198 6.163209 23.994095
3.567328 6.150957 23.946392
3.627671 6.163209 23.994095
4.083481 5.898820 22.964796
4.126566 5.887595 22.921095
4.165531 5.870837 22.855856
4.216242 5.870837 22.855856
4.266953 5.870837 22.855856
4.908079 5.910088 23.008663
4.949674 5.898820 22.964796
5.014968 5.915739 23.030661
5.046768 5.893202 22.942924
5.244230 5.666541 22.060505
5.307758 5.682151 22.121277
5.347019 5.671734 22.080725
5.391069 5.666541 22.060505
5.440015 5.666541 22.060505
5.483939 5.661356 22.040321
5.573636 5.703099 22.202831
5.628085 5.708360 22.223312
5.651325 5.682151 22.121277
5.674353 5.656181 22.020174
5.723210 5.656181 22.020174
5.777348 5.661356 22.040321
5.858408 5.692605 22.161980
5.913020 5.697847 22.182386
5.934911 5.671734 22.080725
5.967493 5.656181 22.020174
6.005371 5.645860 21.979992
6.026645 5.620220 21.880173
6.025932 5.574651 21.702766
6.030621 5.534760 21.547470
6.019206 5.480834 21.337530
6.055820 5.471143 21.299797
6.092305 5.461485 21.262199
6.085766 5.413703 21.076178
6.100505 5.385433 20.966120
7.740197 5.297827 20.625061
7.752769 5.275245 20.537146
7.791693 5.270751 20.519651
7.830551 5.266266 20.502188
7.876040 5.266266 20.502188
7.928276 5.270751 20.519651
7.973803 5.270751 20.519651
8.005692 5.261788 20.484755
8.037473 5.252854 20.449976
8.089713 5.257317 20.467350
8.080204 5.221825 20.329174
9.560223 5.097086 19.843552
9.712279 5.130898 19.975183
9.748515 5.126647 19.958633
9.776598 5.118165 19.925617
9.812692 5.113936 19.909149
9.856864 5.113936 19.909149
9.892861 5.109713 19.892710
9.928799 5.105497 19.876297
9.899388 5.067864 19.729788
9.910696 5.051316 19.665363
44.418385 20.557682 80.033463
43.867264 20.221773 78.725723
44.041935 20.221773 78.725723
44.216606 20.221773 78.725723
43.537598 19.832891 77.211769
43.019497 19.520071 75.993912
42.517483 19.216965 74.813889
42.419994 19.098341 74.352074
-15.188401 7.519652 29.024181
-15.160536 7.537816 29.094290
-15.132536 7.556067 29.164736
-15.086091 7.565226 29.200087
-15.057808 7.583611 29.271046
-15.066089 7.620649 29.414007
-15.037549 7.639304 29.486012
-15.045792 7.676890 29.631084
-15.035530 7.705323 29.740829
-15.006597 7.724395 29.814444
-14.977520 7.743563 29.888426
-14.929729 7.753182 29.925554
-14.881819 7.762825 29.962774
-14.815340 7.762825 29.962774
-14.748861 7.762825 29.962774
-14.682382 7.762825 29.962774
-14.634105 7.772492 30.000088
-14.603916 7.791900 30.074995
-14.555360 7.801640 30.112589
-14.488548 7.801640 30.112589
-14.494207 7.840844 30.263908
-14.445208 7.850706 30.301977
-14.432438 7.880444 30.416756
-14.364951 7.880444 30.416756
-14.297465 7.880444 30.416756
-14.266004 7.900394 30.493761
-14.216342 7.910408 30.532410
-14.166554 7.920446 30.571156
-14.528708 8.201461 31.655809
-14.458472 8.201461 31.655809
-14.502580 8.266638 31.907379
-14.431787 8.266638 31.907379
-14.323051 8.244798 31.823080
-14.328155 8.288594 31.992126
-14.276132 8.299617 32.034668
-14.300137 8.355169 32.249092
-14.247658 8.366369 32.292320
-14.233249 8.400150 32.422707
-14.180397 8.411471 32.466404
-14.127402 8.422823 32.510216
-14.074265 8.434205 32.554150
-14.097288 8.491580 32.775608
-14.043675 8.503149 32.820259
-13.970857 8.503149 32.820259
-13.860271 8.480042 32.731075
-13.825218 8.503149 32.820259
-13.987903 8.741333 33.739597
-13.913044 8.741333 33.739597
-13.838185 8.741333 33.739597
-13.782630 8.753592 33.786915
-13.688468 8.741333 33.739597
-13.613608 8.741333 33.739597
-13.576780 8.765887 33.834370
-13.463891 8.741333 33.739597
-13.389032 8.741333 33.739597
-13.276983 8.716915 33.645351
-13.239315 8.741333 33.739597
-13.182920 8.753592 33.786915
-13.351389 8.916160 34.414387
-13.313070 8.941707 34.512997
-13.215883 9.032289 34.862621
-13.081738 8.993244 34.711918
-13.137230 9.084879 35.065605
-13.059429 9.084879 35.065605
-12.943946 9.058507 34.963818
-12.903828 9.084879 35.065605
-12.882281 9.124724 35.219402
-12.841688 9.151484 35.322685
-12.688895 9.098122 35.116722
-12.483597 9.006222 34.762009
-11.892038 8.852924 34.170315
-11.816223 8.852924 34.170315
-11.740409 8.852924 34.170315
-11.631598 8.827881 34.073650
-11.507169 8.790580 33.929676
-11.512966 8.852924 34.170315
-11.420952 8.840384 34.121914
-11.265461 8.778216 33.881958
-10.497481 9.587268 37.004719
-9.949415 9.456532 36.500107
-9.838618 9.427963 36.389835
-9.743161 9.413743 36.334949
-9.677140 9.427963 36.389835
-9.553109 9.385431 36.225670
-9.501309 9.413743 36.334949
-9.463514 9.456532 36.500107
-9.382530 9.456532 36.500107
-9.372551 9.528720 36.778736
-9.262666 9.499713 36.666775
-9.265933 9.587268 37.004719
-9.226348 9.631654 37.176037
-9.143865 9.631654 37.176037
-9.103527 9.676452 37.348949
-9.006696 9.661473 37.291130
-8.951672 9.691478 37.406944
-8.882468 9.706550 37.465118
-8.799344 9.706550 37.465118
-8.729795 9.721669 37.523476
-8.673562 9.752049 37.640736
-8.590048 9.752049 37.640736
-8.533199 9.782619 37.758732
-8.449424 9.782619 37.758732
-8.378780 9.797977 37.818008
-8.307915 9.813383 37.877472
-8.223875 9.813383 37.877472
-8.336450 10.050421 38.792385
-8.290431 10.099210 38.980698
-8.243962 10.148474 39.170849
-8.374938 10.419552 40.217148
-8.299562 10.436975 40.284401
-8.196477 10.419552 40.217148
-8.175488 10.507258 40.555676
-8.085506 10.507258 40.555676
-8.009008 10.524978 40.624065
-7.932251 10.542756 40.692688
-7.855234 10.560595 40.761543
-7.777956 10.578494 40.830627
-7.661394 10.542756 40.692688
-7.545616 10.507258 40.555676
-7.544543 10.632558 41.039303
-7.279863 10.384878 40.083313
-7.167078 10.350433 39.950367
-7.066720 10.333297 39.884224
-6.920936 10.248459 39.556767
-6.788582 10.181585 39.298649
-6.657944 10.115578 39.043877
-6.497600 10.002102 38.605885
-6.371104 9.938395 38.359985
-6.259112 10.614475 40.969509
-6.253291 10.760882 41.534607
-6.150533 10.742361 41.463116
-6.058538 10.742361 41.463116
-5.956291 10.723903 41.391876
-2.869190 7.639304 29.486012
-2.786714 7.592836 29.306656
-2.414598 7.447866 28.747101
-2.345219 7.430133 28.678656
-2.295251 7.474625 28.850384
-2.220603 7.438989 28.712837
-1.474966 6.660952 25.709787
-1.411895 6.632637 25.600500
-1.353657 6.625596 25.573324
-1.295541 6.618570 25.546206
-1.240176 6.625596 25.573324
-1.183436 6.625596 25.573324
-1.127893 6.632637 25.600500
-1.069956 6.625596 25.573324
-1.014292 6.632637 25.600500
-0.958511 6.639693 25.627735
-0.901650 6.639693 25.627735
-0.844789 6.639693 25.627735
-0.787928 6.639693 25.627735
-0.728742 6.618570 25.546206
-0.669930 6.597581 25.465191
-0.612782 6.590614 25.438301
-0.441596 6.562893 25.331305
-0.384180 6.542255 25.251646
-0.328154 6.542255 25.251646
-0.272128 6.542255 25.251646
-0.216101 6.542255 25.251646
-0.104707 6.583662 25.411467
-0.048275 6.576725 25.384691
0.008021 6.555999 25.304697
0.064031 6.542255 25.251646
0.120183 6.549120 25.278145
0.175715 6.528569 25.198820
0.231141 6.514939 25.146212
0.286336 6.501366 25.093824
0.340593 6.474390 24.989700
0.394809 6.454304 24.912172
0.449617 6.447636 24.886436
0.503274 6.427715 24.809547
0.558319 6.427715 24.809547
0.613365 6.427715 24.809547
0.666352 6.407917 24.733133
0.721228 6.407917 24.733133
0.776104 6.407917 24.733133
0.830127 6.401345 24.707766
0.884947 6.401345 24.707766
0.940731 6.407917 24.733133
0.996631 6.414503 24.758553
1.052645 6.421103 24.784023
1.108774 6.427715 24.809547
1.166222 6.440982 24.860754
1.222643 6.447636 24.886436
1.272600 6.421103 24.784023
1.328956 6.427715 24.809547
1.381157 6.414503 24.758553
1.428748 6.381709 24.631975
1.922196 6.210260 23.970221
1.969500 6.191777 23.898880
2.250252 6.235076 24.066006
2.305951 6.241312 24.090071
2.357044 6.235076 24.066006
2.410439 6.235076 24.066006
2.458922 6.222643 24.018017
2.512212 6.222643 24.018017
2.562946 6.216446 23.994095
2.618790 6.222643 24.018017
2.666762 6.210260 23.970221
2.711850 6.191777 23.898880
2.759400 6.179516 23.851555
2.806762 6.167304 23.804419
2.856755 6.161216 23.780920
2.900927 6.143023 23.710699
2.953534 6.143023 23.710699
3.006142 6.143023 23.710699
3.055742 6.136983 23.687386
3.105244 6.130954 23.664118
3.157748 6.130954 23.664118
3.210252 6.130954 23.664118
3.265965 6.136983 23.687386
3.325059 6.149076 23.734060
3.384387 6.161216 23.780920
3.440547 6.167304 23.804419
3.517694 6.210260 23.970221
3.567328 6.204087 23.946392
3.627671 6.216446 23.994095
3.684577 6.222643 24.018017
4.075710 5.938450 22.921095
4.118728 5.927171 22.877560
4.157642 5.910333 22.812567
4.204275 5.904741 22.790985
4.250821 5.899160 22.769444
4.317664 5.921548 22.855856
5.037173 5.932806 22.899307
5.209596 5.731232 22.121277
5.273204 5.747064 22.182386
5.327326 5.752361 22.202831
5.361763 5.736500 22.141609
5.410889 5.736500 22.141609
5.449996 5.725974 22.100983
5.493992 5.720726 22.080725
5.568503 5.747064 22.182386
5.622898 5.752361 22.202831
5.640965 5.720726 22.080725
5.669171 5.699828 22.000065
5.723210 5.705038 22.020174
5.772067 5.705038 22.020174
5.869207 5.752361 22.202831
5.929399 5.762984 22.243834
5.956751 5.741777 22.161980
5.978423 5.715487 22.060505
6.016350 5.705038 22.020174
6.059668 5.699828 22.000065
6.075191 5.668766 21.880173
6.074085 5.622803 21.702766
6.100255 5.602613 21.624840
6.142720 5.597589 21.605446
6.124740 5.537987 21.375397
6.123267 5.494112 21.206049
6.116475 5.446171 21.021004
7.760128 5.357349 20.678173
7.766011 5.329899 20.572222
7.804990 5.325351 20.554668
7.830551 5.311755 20.502188
7.876040 5.311755 20.502188
7.928276 5.316279 20.519651
7.987410 5.325351 20.554668
8.012506 5.311755 20.502188
8.037473 5.298227 20.449976
8.082846 5.298227 20.449976
9.560223 5.141113 19.843552
9.643970 5.162375 19.925617
9.704233 5.170929 19.958633
9.768518 5.158109 19.909149
9.796499 5.149597 19.876297
9.824387 5.141113 19.843552
9.836006 5.124229 19.778383
9.871783 5.120026 19.762159
9.867064 5.094948 19.665363
9.886484 5.082501 19.617321
9.921930 5.078366 19.601360
44.210117 20.804371 80.300240
44.388283 20.804371 80.300240
44.125195 20.598389 79.505188
43.867264 20.396442 78.725723
44.041935 20.396442 78.725723
44.361580 20.463316 78.983841
43.818485 20.133263 77.709908
43.569263 19.940292 76.965080
43.324776 19.750986 76.234406
43.356712 19.688681 75.993912
43.525322 19.688681 75.993912
-15.170124 7.574923 28.989256
-15.142248 7.593197 29.059193
-15.114238 7.611561 29.129469
-15.086091 7.630013 29.200087
-15.057808 7.648555 29.271046
-15.029387 7.667187 29.342352
-15.000828 7.685911 29.414007
-14.972128 7.704725 29.486012
-15.016991 7.761727 29.704157
-14.988048 7.780916 29.777592
-14.940447 7.790545 29.814444
-14.892729 7.800199 29.851389
-14.844892 7.809877 29.888426
-14.778578 7.809877 29.888426
-14.712263 7.809877 29.888426
-14.664143 7.819579 29.925554
-14.597747 7.819579 29.925554
-14.549424 7.829304 29.962774
-14.500980 7.839055 30.000088
-14.452416 7.848829 30.037495
-14.512439 7.917938 30.301977
-14.463401 7.927910 30.340139
-14.450684 7.957978 30.455210
-14.383112 7.957978 30.455210
-14.297465 7.947930 30.416756
-14.266004 7.968051 30.493761
-14.234384 7.988275 30.571156
-14.586209 8.304434 31.781097
-14.496571 8.293492 31.739223
-14.541100 8.359576 31.992126
-14.412697 8.326403 31.865173
-14.323051 8.315404 31.823080
-14.347208 8.370692 32.034668
-14.276132 8.370692 32.034668
-14.281019 8.415456 32.205978
-14.209562 8.415456 32.205978
-14.195039 8.449344 32.335667
-14.123295 8.449344 32.335667
-14.108363 8.483505 32.466404
-14.074265 8.506433 32.554150
-14.059032 8.541059 32.686665
-14.024569 8.564301 32.775608
-13.970857 8.575969 32.820259
-13.860271 8.552664 32.731075
-13.900972 8.622960 33.000099
-13.987903 8.816192 33.739597
-13.893585 8.803862 33.692406
-13.838185 8.816192 33.739597
-13.801988 8.840956 33.834370
-13.707666 8.828556 33.786915
-13.632702 8.828556 33.786915
-13.557738 8.828556 33.786915
-13.463891 8.816192 33.739597
-13.370306 8.803862 33.692406
-13.258466 8.779304 33.598427
-13.220798 8.803862 33.692406
-13.182920 8.828556 33.786915
-13.332170 9.031220 34.562511
-13.254246 9.136083 34.963818
-13.100616 9.083349 34.762009
-13.175587 9.189432 35.167988
-13.078466 9.176036 35.116722
-12.981628 9.162680 35.065605
-11.975719 8.878365 33.977535
-11.917141 8.890905 34.025524
-11.808291 8.865860 33.929676
-11.733011 8.865860 33.929676
-11.657730 8.865860 33.929676
-11.582450 8.865860 33.929676
-11.490985 8.853391 33.881958
-11.480397 8.903481 34.073650
-11.388689 8.890905 34.025524
-11.297239 8.878365 33.977535
-11.349919 8.979687 34.365295
-11.115111 8.853391 33.881958
-10.531054 9.625016 36.834972
-10.338669 9.523088 36.444889
-10.211463 9.480062 36.280228
-9.954983 9.465806 36.225670
-9.919357 9.508702 36.389835
-9.823778 9.494360 36.334949
-9.743161 9.494360 36.334949
-9.677140 9.508702 36.389835
-9.581927 9.494360 36.334949
-9.544497 9.537517 36.500107
-9.477875 9.551989 36.555496
-9.425373 9.581066 36.666775
-9.372551 9.610322 36.778736
-9.248590 9.566505 36.611050
-9.251721 9.654541 36.947964
-9.197959 9.684247 37.061649
-9.129775 9.699169 37.118755
-9.089435 9.744211 37.291130
-9.006696 9.744211 37.291130
-8.937793 9.759319 37.348949
-8.868676 9.774473 37.406944
-8.799344 9.789675 37.465118
-8.716219 9.789675 37.465118
-8.646542 9.804923 37.523476
-8.563288 9.804923 37.523476
-8.533199 9.866396 37.758732
-8.423019 9.835564 37.640736
-8.326494 9.820220 37.582016
-8.268910 9.850956 37.699642
-8.198095 9.866396 37.758732
-8.323048 10.120194 38.730019
-8.277038 10.169242 38.917725
-8.230579 10.218767 39.107258
-8.347068 10.473811 40.083313
-8.271897 10.491268 40.150120
-8.182816 10.491268 40.150120
-8.161748 10.579430 40.487514
-8.071918 10.579430 40.487514
-7.995525 10.597240 40.555676
-7.918875 10.615110 40.624065
-7.855234 10.651033 40.761543
-7.764796 10.651033 40.761543
-7.661394 10.633041 40.692688
-7.545616 10.597240 40.555676
-7.544543 10.723613 41.039303
-7.279863 10.473811 40.083313
-7.078440 10.439073 39.950367
-6.943739 10.370281 39.687103
-6.810803 10.302391 39.427284
-6.679596 10.235383 39.170849
-6.539520 10.152840 38.854954
-6.391459 10.055529 38.482540
-6.285994 10.023504 38.359985
-6.151903 9.944329 38.056984
-6.154977 10.087757 38.605885
-6.307668 10.947410 41.895775
-6.182456 10.890590 41.678326
-6.100538 10.909464 41.750557
-5.987153 10.871780 41.606342
-5.884676 10.853036 41.534607
-5.782552 10.834355 41.463116
-2.779950 7.639273 29.235523
-2.484309 7.529618 28.815874
-2.411720 7.502695 28.712837
-2.345219 7.493763 28.678656
-2.289767 7.520622 28.781446
-2.217959 7.493763 28.678656
-2.144119 7.458247 28.542738
-1.474966 6.717994 25.709787
-1.411895 6.689437 25.600500
-1.352221 6.675250 25.546206
-1.294169 6.668179 25.519144
-1.240176 6.682336 25.573324
-1.183436 6.682336 25.573324
-1.125501 6.675250 25.546206
-1.067689 6.668179 25.519144
-1.012141 6.675250 25.546206
-0.956476 6.682336 25.573324
-0.899736 6.682336 25.573324
-0.842995 6.682336 25.573324
-0.786255 6.682336 25.573324
-0.726431 6.654081 25.465191
-0.669223 6.647055 25.438301
-0.612782 6.647055 25.438301
-0.559295 6.682336 25.573324
-0.500959 6.661122 25.492138
-0.441132 6.612144 25.304697
-0.384584 6.605206 25.278145
-0.327810 6.591372 25.225206
-0.271843 6.591372 25.225206
-0.215649 6.584478 25.198820
-0.160075 6.598282 25.251646
-0.104597 6.633046 25.384691
-0.048275 6.633046 25.384691
0.008030 6.619096 25.331305
0.064098 6.605206 25.278145
0.231867 6.591372 25.225206
0.286634 6.563880 25.119991
0.340240 6.523068 24.963804
0.394401 6.502852 24.886436
0.450082 6.509577 24.912172
0.503793 6.489444 24.835125
0.558319 6.482761 24.809547
0.613365 6.482761 24.809547
0.666352 6.462793 24.733133
0.721228 6.462793 24.733133
0.776104 6.462793 24.733133
0.830127 6.456165 24.707766
0.884947 6.456165 24.707766
0.940731 6.462793 24.733133
0.996631 6.469436 24.758553
1.052645 6.476091 24.784023
1.109918 6.489444 24.835125
1.166222 6.496141 24.860754
1.223907 6.509577 24.912172
1.275224 6.489444 24.835125
1.330327 6.489444 24.835125
1.382578 6.476091 24.784023
1.433144 6.456165 24.707766
2.250252 6.288472 24.066006
2.305951 6.294761 24.090071
2.357044 6.288472 24.066006
2.410439 6.288472 24.066006
2.458922 6.275933 24.018017
2.509709 6.269682 23.994095
2.562946 6.269682 23.994095
2.616182 6.269682 23.994095
2.664111 6.257217 23.946392
2.709162 6.238613 23.875195
2.756671 6.226272 23.827963
2.806762 6.220119 23.804419
2.856755 6.213979 23.780920
2.900927 6.195631 23.710699
2.950630 6.189538 23.687386
3.003186 6.189538 23.687386
3.055742 6.189538 23.687386
3.108297 6.189538 23.687386
3.157748 6.183458 23.664118
3.210252 6.183458 23.664118
3.265965 6.189538 23.687386
3.325059 6.201735 23.734060
3.384387 6.213979 23.780920
3.443950 6.226272 23.827963
3.510708 6.251004 23.922613
3.567328 6.257217 23.946392
3.624061 6.263443 23.970221
3.680907 6.269682 23.994095
4.079592 5.995010 22.942924
4.122643 5.983613 22.899307
